ply
format ascii 1.0
element vertex 500
comment vertices
property float x
property float y
property float z
end_header
0.102138198912143707 0.0668754056096076965 0.856326103210449219
0.621118903160095215 -0.0647489726543426514 -0.127308562397956848
-0.0724107027053833008 -0.00952906906604766846 -0.848632752895355225
-0.424058973789215088 -0.0162358563393354416 -0.0142979156225919724
0.329767823219299316 -0.0784902423620223999 -0.331419169902801514
0.0811450183391571045 0.0352380946278572083 0.208290040493011475
0.873148083686828613 0.0430083014070987701 0.374791651964187622
-0.877116739749908447 0.0419820472598075867 0.377628326416015625
0.0747680440545082092 0.054698549211025238 -0.372491180896759033
-0.00511128269135951996 0.388618439435958862 0.737493813037872314
0.364717066287994385 -0.0233624186366796494 0.130658403038978577
-0.261219412088394165 0.082018144428730011 0.956170976161956787
0.118455834686756134 -0.13186606764793396 -0.0343796722590923309
-0.0724809691309928894 0.00560110295191407204 0.517309784889221191
-0.634255111217498779 -0.0673524737358093262 -0.133218199014663696
-0.128861889243125916 -0.146753311157226562 -0.0139544354751706123
-0.365307241678237915 -0.0977511405944824219 -0.31531563401222229
-0.261470675468444824 -0.00513306818902492523 -0.244674280285835266
0.582435250282287598 0.0217327717691659927 0.16009308397769928
0.00585241056978702545 -0.0931522920727729797 -0.575192570686340332
-0.0952539816498756409 0.032088112086057663 0.00618840707466006279
-0.590434849262237549 0.00420466065406799316 0.230735465884208679
0.0938187539577484131 -0.0581786930561065674 -0.230670645833015442
-0.0397078916430473328 0.0980680882930755615 -0.624024808406829834
-0.0751878023147583008 -0.0531345345079898834 0.22670254111289978
0.345919579267501831 -0.0845888778567314148 -0.0609700866043567657
0.00331702129915356636 0.215394005179405212 0.838406205177307129
-0.00668132118880748749 0.104029908776283264 -0.131836026906967163
0.0715354830026626587 0.0194574706256389618 0.410510897636413574
-0.116075575351715088 0.0667351782321929932 0.733060777187347412
-0.628695368766784668 -0.0729464888572692871 0.0951363667845726013
0.847601592540740967 0.0472679100930690765 0.241185665130615234
-0.0714640915393829346 0.0525453835725784302 0.478548794984817505
-0.0458393916487693787 -0.00832753628492355347 -0.349203407764434814
-0.657697737216949463 -0.0494572557508945465 -0.0930680632591247559
0.00466314330697059631 0.179668724536895752 0.825571596622467041
0.0703428983688354492 -0.00446470454335212708 -0.788837611675262451
-0.093732096254825592 0.0397022515535354614 -0.418707907199859619
0.0582241378724575043 -0.0605300851166248322 0.0476035363972187042
-0.165017426013946533 -0.0187135040760040283 -0.0657367035746574402
0.501974999904632568 0.00694416835904121399 -0.0383828356862068176
0.200934618711471558 -0.00725537678226828575 -0.09270457923412323
0.0366376824676990509 0.0557784512639045715 0.650993168354034424
0.636549949645996094 -0.0565824173390865326 0.0176647603511810303
-0.770071625709533691 0.0390842035412788391 0.168857529759407043
0.225228622555732727 0.0774740725755691528 0.955321550369262695
0.399557769298553467 -0.0177384484559297562 0.154477939009666443
-0.0598386004567146301 -0.0935031101107597351 -0.18318939208984375
-0.419723480939865112 -0.017343500629067421 0.159607559442520142
0.0122842704877257347 -0.0562431551516056061 -0.930786848068237305
-0.00977098103612661362 -0.0873863771557807922 0.319210350513458252
-0.251949280500411987 -0.037919018417596817 0.0822530537843704224
-0.00409741373732686043 0.0613520592451095581 0.348476141691207886
0.230669841170310974 -0.0176774319261312485 -0.00217132153920829296
-0.304874777793884277 -0.0318917520344257355 -0.0755267813801765442
-0.0714611783623695374 0.0782714113593101501 0.193888366222381592
0.0076765725389122963 0.102893613278865814 -0.582330584526062012
0.0954334288835525513 -0.0593918897211551666 -0.132049143314361572
0.304076582193374634 0.00115413905587047338 -0.189415678381919861
-0.379482746124267578 -0.0973631292581558228 -0.167592495679855347
-0.555146872997283936 0.0233802162110805511 0.0765671655535697937
0.0434029698371887207 0.0580051019787788391 -0.856377959251403809
-0.0583022311329841614 0.0518370047211647034 0.880937755107879639
0.0230604615062475204 -0.0671001672744750977 -0.371568411588668823
-0.043104909360408783 0.0967496484518051147 -0.29845920205116272
-0.0212352797389030457 -0.138863369822502136 -0.782100677490234375
-0.0410778969526290894 -0.0369588360190391541 -0.0635762959718704224
0.745810627937316895 0.0354428067803382874 0.157834351062774658
-0.00810588430613279343 0.378887981176376343 0.911370635032653809
-0.744597434997558594 0.0264888182282447815 0.307467460632324219
0.57809680700302124 -0.0486354939639568329 -0.108956374228000641
-0.0924468263983726501 -0.0162507332861423492 -0.514417350292205811
0.0606438890099525452 -0.0813480690121650696 0.190764144062995911
0.0171489007771015167 0.100913651287555695 0.0750067606568336487
-0.0829916819930076599 -0.0827433019876480103 0.0984885618090629578
0.512536764144897461 0.0210591778159141541 0.0528475344181060791
0.00705122901126742363 0.16697286069393158 0.737396240234375
0.710665345191955566 0.0223048385232686996 0.304318130016326904
0.0816284269094467163 -0.00397214759141206741 -0.657871365547180176
-0.0199739392846822739 0.0965394601225852966 -0.787587165832519531
-0.55277252197265625 0.0099339773878455162 -0.00777410995215177536
0.222912609577178955 -0.0143759101629257202 -0.272050231695175171
-0.151413857936859131 -0.00350773963145911694 -0.217975810170173645
-0.487041622400283813 -0.00900555402040481567 0.0994294360280036926
-0.395286709070205688 0.00913623906672000885 -0.116142638027667999
-0.0474923662841320038 -0.0250763054937124252 -0.121440120041370392
-0.084261968731880188 0.0591460168361663818 0.321315258741378784
-0.0922110006213188171 -0.0171010419726371765 -0.67862701416015625
0.377595901489257812 0.00655163265764713287 0.00389789720065891743
0.323588758707046509 -0.0558810792863368988 -0.263018429279327393
0.0710240304470062256 0.0617365501821041107 -0.238298207521438599
-0.140042886137962341 -0.0530569292604923248 -0.24477781355381012
-0.00397560186684131622 0.0170144997537136078 0.785453498363494873
-0.159989342093467712 -0.0513635464012622833 -0.181929841637611389
0.303671509027481079 -0.030214257538318634 -0.0702975615859031677
-0.369328111410140991 -0.0107871945947408676 -0.248877078294754028
-0.134074941277503967 -0.131466016173362732 -0.0956498607993125916
0.000795031024608761072 0.0261540822684764862 -0.954856693744659424
0.151299178600311279 -0.0510492175817489624 -0.161111876368522644
-0.0366486236453056335 -0.00773928733542561531 0.652002394199371338
0.0300485044717788696 -0.0379476658999919891 0.532633304595947266
-0.00454936828464269638 -0.0770085602998733521 0.38474726676940918
0.0792366266250610352 -0.0149642601609230042 -0.49552232027053833
0.00761847058311104774 -0.014226837083697319 -0.235234320163726807
0.327200502157211304 -0.062115110456943512 -0.176036283373832703
0.0831171497702598572 0.0141825107857584953 -0.0434009619057178497
-0.0181249473243951797 0.0656968876719474792 0.44772791862487793
-0.260112643241882324 0.00138403079472482204 -0.12461458146572113
-0.00269519141875207424 -0.0436138510704040527 -0.472448617219924927
-0.000119231175631284714 -0.0655179619789123535 0.440077245235443115
-0.0884540155529975891 0.0544585064053535461 -0.186855405569076538
-0.185903742909431458 0.0701859742403030396 0.852132320404052734
0.0136810149997472763 -0.075676649808883667 -0.86822432279586792
-0.595474004745483398 -0.0349575579166412354 -0.0364506132900714874
-0.358776360750198364 -0.0817039087414741516 -0.0523544996976852417
-0.690324962139129639 0.0235976427793502808 0.10388956218957901
-0.594746232032775879 -0.041127864271402359 0.0105010047554969788
0.0494246035814285278 0.0854288265109062195 -0.488679826259613037
0.0830295905470848083 0.0098513476550579071 -0.526283860206604004
0.310423493385314941 0.00604400131851434708 -0.106805212795734406
0.38304513692855835 -0.0857096835970878601 -0.249066054821014404
-0.166688084602355957 -0.0356456264853477478 -0.329484134912490845
0.59548497200012207 -0.0156754478812217712 0.0091243647038936615
-0.0152619890868663788 0.284531593322753906 0.851433694362640381
-0.0788812637329101562 -0.0871923714876174927 0.00574712827801704407
0.0780738890171051025 -0.0153722772374749184 0.311102300882339478
0.0401724129915237427 0.0786905884742736816 0.519143283367156982
0.0995769202709197998 0.0657983198761940002 0.73009037971496582
-0.0313924625515937805 -0.0909036248922348022 -0.677327275276184082
0.131400972604751587 -0.0551571212708950043 -0.00510081509128212929
-0.327894210815429688 -0.0036020276602357626 0.00479476898908615112
0.126771971583366394 -0.0375991612672805786 -0.353981196880340576
-0.0258671026676893234 0.102051347494125366 -0.0588374249637126923
0.58512723445892334 -0.052636951208114624 0.101654976606369019
0.120610013604164124 -0.00505556771531701088 -0.212789908051490784
0.627306044101715088 -0.0717613399028778076 -0.0548373796045780182
0.219904005527496338 0.0793849825859069824 0.835208594799041748
-0.0744673758745193481 -0.0899908840656280518 -0.274019449949264526
-0.204221740365028381 -0.0468203872442245483 -0.0220326334238052368
-0.0611623674631118774 -0.0633618757128715515 -0.349189341068267822
0.0145687200129032135 0.101571559906005859 0.26303902268409729
-0.894635677337646484 0.0499623864889144897 0.297399222850799561
0.0539657548069953918 0.0796603187918663025 -0.714274883270263672
0.083114132285118103 0.0146090239286422729 0.0759545788168907166
0.0830291956663131714 0.0186972282826900482 -0.288712650537490845
-0.00415474176406860352 0.281341046094894409 0.751535654067993164
-0.346594154834747314 -0.0273937247693538666 0.125655457377433777
-0.0867821425199508667 -0.0198180340230464935 0.137259647250175476
0.0287977196276187897 -0.0935031101107597351 -0.049115598201751709
-0.0335056185722351074 0.0945302397012710571 0.588164269924163818
-0.0811470150947570801 -0.0233812127262353897 0.386690318584442139
0.604681670665740967 0.00779980747029185295 0.255158156156539917
-0.0544291399419307709 -0.0727122724056243896 -0.780003845691680908
-0.671552598476409912 0.0151099227368831635 0.182199731469154358
0.249803066253662109 -0.0387532413005828857 0.0754660516977310181
0.386194467544555664 -0.0607002675533294678 -0.161499887704849243
0.174199953675270081 0.0718491002917289734 0.804420888423919678
-0.0577350892126560211 0.089067503809928894 -0.509415388107299805
0.494297146797180176 -0.0065759546123445034 0.178374886512756348
-0.0963615253567695618 0.00579319940879940987 -0.395215034484863281
0.644804716110229492 0.0220329277217388153 0.0765293613076210022
-0.0312077030539512634 0.0884682983160018921 0.701934397220611572
0.0372844338417053223 -0.0815370455384254456 -0.471372038125991821
0.0357245467603206635 -0.0671001672744750977 -0.29935687780380249
0.0450359396636486053 -0.0129996715113520622 -0.409493118524551392
-0.0129343774169683456 -0.0921440497040748596 0.219150364398956299
-0.0799407586455345154 -0.0462782718241214752 -0.585509061813354492
-0.574474096298217773 0.0186901912093162537 0.156612023711204529
0.0195582974702119827 -0.0904090628027915955 -0.157750442624092102
0.880718350410461426 0.0474488474428653717 0.267355382442474365
-0.0395884700119495392 0.0981131196022033691 -0.0218216404318809509
-0.0966796725988388062 0.0148944025859236717 0.0962564796209335327
0.0735155493021011353 0.0572518929839134216 -0.144205197691917419
0.0248851273208856583 -0.0155822653323411942 -0.201572731137275696
0.0611029751598834991 -0.0502475537359714508 -0.728132784366607666
-0.046698346734046936 -0.0130240991711616516 0.605161428451538086
0.00307706673629581928 0.103501267731189728 0.236685320734977722
-0.608682513236999512 -0.0156805757433176041 0.0695010125637054443
0.019334135577082634 0.100340977311134338 -0.315239250659942627
0.681749343872070312 0.0324994660913944244 0.207609519362449646
-0.0597026906907558441 -0.00963029544800519943 -0.247719064354896545
0.102507114410400391 -0.0591008812189102173 -0.0330645479261875153
-0.00164610019419342279 -0.0935031101107597351 0.102824047207832336
0.380517005920410156 -0.0213352032005786896 0.0914771929383277893
-0.0966768562793731689 0.0152665339410305023 -0.279595404863357544
0.0727780237793922424 -0.0772206559777259827 0.0827384740114212036
-0.847557485103607178 0.0472449921071529388 0.23404964804649353
-0.159924998879432678 -0.0529742017388343811 0.0540289618074893951
-0.472949504852294922 -0.00890613999217748642 -0.0298597291111946106
-0.00735299848020076752 0.0978190973401069641 0.80184251070022583
-0.00162116088904440403 -0.0603370927274227142 0.0121902665123343468
-0.0947602167725563049 -0.00640486646443605423 -0.584694862365722656
0.306149303913116455 -0.0308434218168258667 0.0182333085685968399
-0.331853717565536499 -0.0208484809845685959 -0.17253914475440979
-0.0310075655579566956 -0.0729987546801567078 -0.0973501726984977722
0.0630787163972854614 0.0727463588118553162 -0.000848028052132576704
0.410061299800872803 -0.0149368196725845337 -0.0706985369324684143
-0.24608185887336731 -0.0393981859087944031 -0.143639251589775085
-0.0374370142817497253 -0.0888610333204269409 -0.454416096210479736
0.801086306571960449 0.0421111024916172028 0.29565921425819397
0.231891170144081116 -0.0397249795496463776 -0.133664518594741821
0.420304358005523682 0.0110073424875736237 -0.0947758182883262634
-0.384889811277389526 -0.0023256086278706789 0.0596418790519237518
0.244072362780570984 0.00207049259915947914 -0.214558079838752747
0.183130279183387756 -0.0469675473868846893 0.0672241076827049255
0.644535362720489502 -0.032479502260684967 -0.105272263288497925
0.460293829441070557 0.00898857228457927704 0.0964759215712547302
0.618487238883972168 -0.00931807700544595718 -0.0747792050242424011
-9.41809194046072662e-05 0.138604730367660522 0.656534850597381592
-0.000620731967501342297 0.077066861093044281 0.888698995113372803
-0.0848464071750640869 0.050473138689994812 -0.737953722476959229
0.0593888796865940094 0.00585914170369505882 -0.854037821292877197
-0.338297158479690552 -0.0763792917132377625 -0.244888395071029663
-0.0922347232699394226 0.0448921062052249908 -0.0852803736925125122
0.319485515356063843 0.0062402188777923584 -0.147512346506118774
-0.0383781939744949341 0.0985696911811828613 -0.417991191148757935
-0.053878389298915863 0.0555621311068534851 0.622673273086547852
-0.81658780574798584 0.034697994589805603 0.346474766731262207
-0.114954762160778046 -0.0590309128165245056 -0.0700463578104972839
0.0203863922506570816 0.100009456276893616 0.158713921904563904
0.0599768273532390594 0.0713378489017486572 0.355695575475692749
-0.134412676095962524 -0.0560918673872947693 -0.0984845608472824097
-0.0566511675715446472 0.0897822156548500061 0.105821587145328522
0.132677599787712097 -0.0494571588933467865 -0.300127893686294556
0.120171733200550079 -0.103767335414886475 -0.0711299851536750793
-0.0148938000202178955 0.0780476555228233337 -0.878104627132415771
-0.26741752028465271 -0.038104373961687088 0.0129751376807689667
0.0458555892109870911 0.0879548341035842896 -0.645060956478118896
0.050887085497379303 0.0149904023855924606 0.5709228515625
0.0249344818294048309 0.0404282063245773315 0.739419758319854736
0.128019437193870544 -0.0180112626403570175 -0.0872214362025260925
0.027869202196598053 -0.0084996325895190239 -0.32629859447479248
-0.489696413278579712 0.0185142774134874344 0.0141526432707905769
0.640508472919464111 -0.0376089103519916534 0.0931886658072471619
-0.377129584550857544 -0.0270148571580648422 -0.0873440802097320557
0.419159442186355591 -0.0159744005650281906 0.0533095337450504303
0.0677570849657058716 -0.043745238333940506 -0.59253847599029541
-0.00258779432624578476 -0.0935031101107597351 -0.223833173513412476
-0.652452528476715088 -0.0507828332483768463 -0.0137213254347443581
-0.121573083102703094 0.060980532318353653 0.826700448989868164
-0.0664257630705833435 0.0644491240382194519 0.788030862808227539
-0.0909269452095031738 0.0486380197107791901 -0.376768380403518677
-0.0872291624546051025 -0.0287552867084741592 0.307087481021881104
-0.6485443115234375 -0.0304866693913936615 -0.128303706645965576
-0.0664296895265579224 0.0767246931791305542 0.388262510299682617
-0.373924940824508667 -0.0309839453548192978 -0.328149199485778809
-0.500476241111755371 -0.00744978711009025574 0.193281203508377075
-0.395426422357559204 -0.0795567780733108521 -0.239638149738311768
-0.342025488615036011 0.00556129682809114456 -0.0616884119808673859
-0.162904456257820129 -0.138552770018577576 -0.0926307961344718933
-0.61044466495513916 -0.0230409502983093262 0.138388499617576599
0.00696860020980238914 0.102992333471775055 -0.219108685851097107
-0.625255465507507324 0.0227439161390066147 -0.00449844123795628548
-0.204147353768348694 -0.000197368819499388337 -0.197100535035133362
0.186164006590843201 -0.0472762472927570343 -0.0597903653979301453
0.0629119575023651123 -0.0508226379752159119 0.257848113775253296
-0.123331204056739807 -0.0388969890773296356 -0.000161255971761420369
0.0200736690312623978 0.0989016070961952209 0.408980965614318848
0.773303210735321045 0.0304893888533115387 0.213807672262191772
0.378640294075012207 -0.0380036570131778717 -0.303166657686233521
-0.222142696380615234 -0.00776049727573990822 -0.0796043351292610168
0.444004327058792114 0.0156661048531532288 -0.00439301459118723869
-0.524319946765899658 0.016617240384221077 0.104969166219234467
-0.0806852206587791443 -0.0825503021478652954 0.151483416557312012
-0.020882854238152504 0.18142382800579071 0.768672525882720947
-0.122041523456573486 0.0609947070479393005 0.907782018184661865
-2.74150406767148525e-05 0.103760518133640289 -0.433018118143081665
0.00719718588516116142 0.150754749774932861 0.799958765506744385
-0.466715186834335327 0.0142208095639944077 0.0411944948136806488
-0.0753871425986289978 0.0742109492421150208 -0.695348739624023438
-0.0138971107080578804 0.343300372362136841 0.835196495056152344
-0.187179356813430786 0.0701043605804443359 0.930296778678894043
0.0689802244305610657 -0.0838088318705558777 0.00691359862685203552
0.576265275478363037 0.00518494565039873123 0.0853813737630844116
0.0173060167580842972 -0.10989813506603241 -0.758746564388275146
-0.0361463166773319244 -0.0481730960309505463 0.50412440299987793
-0.0951495394110679626 0.0327100567519664764 0.250631630420684814
-0.0421687550842761993 -0.0178398732095956802 -0.433325737714767456
-0.0317786633968353271 0.0126058328896760941 0.727885961532592773
0.0800592899322509766 0.0400853864848613739 -0.593390941619873047
0.0732270479202270508 -0.0721724703907966614 0.141213148832321167
-0.135682269930839539 -0.00362786254845559597 -0.283130735158920288
-0.0937880799174308777 0.0394442118704319 -0.344443708658218384
0.170299723744392395 -0.0473093204200267792 -0.212839171290397644
-0.322489112615585327 -0.0298818312585353851 -0.0392607897520065308
-0.302552759647369385 0.00498159090057015419 -0.12459447979927063
-0.182256832718849182 -0.00511015066877007484 -0.148392900824546814
0.0514861941337585449 0.0638715252280235291 0.792469918727874756
0.363890796899795532 -0.0138478679582476616 -0.209966272115707397
0.355475127696990967 -0.0996821597218513489 -0.212468251585960388
-0.679347038269042969 0.0157319474965333939 0.260781317949295044
-0.442425191402435303 0.0113248908892273903 -0.0891772881150245667
-0.0571301504969596863 0.0623775795102119446 -0.846209228038787842
-0.776024460792541504 0.0286919344216585159 0.237930774688720703
0.049335036426782608 -0.0322023630142211914 -0.0703078135848045349
0.174478411674499512 -0.00255409232340753078 -0.174838066101074219
0.0805391818284988403 -0.00967814214527606964 0.111832767724990845
0.0726359859108924866 0.0588910914957523346 0.279529541730880737
-0.223871678113937378 -0.0411973185837268829 -0.21475711464881897
-0.0510427802801132202 -0.0813993290066719055 -0.523755729198455811
-0.0858013555407524109 -0.0345582887530326843 0.0552253685891628265
0.0361849330365657806 -0.0935031101107597351 -0.121977902948856354
-0.591206848621368408 -0.0336985252797603607 -0.113543160259723663
-0.313324660062789917 -0.0176045522093772888 0.0602011717855930328
-0.59475630521774292 -0.0404090285301208496 0.0547591522336006165
0.158124566078186035 0.0678527727723121643 0.921722292900085449
0.0498590543866157532 0.0682908445596694946 -0.803109645843505859
-0.0528977997601032257 0.07629375159740448 0.549707770347595215
0.131583929061889648 -0.00332499388605356216 -0.284995377063751221
0.670841813087463379 0.0175105724483728409 0.137532055377960205
0.584987521171569824 0.0263914931565523148 0.0423909015953540802
-0.02271244116127491 0.103624708950519562 0.762451171875
-0.0530140027403831482 0.0919084399938583374 -0.569444715976715088
0.071672491729259491 -0.0358020365238189697 -0.348179101943969727
-0.0720018893480300903 -0.0914052203297615051 -0.0463737808167934418
-0.0397749394178390503 -0.0111939040943980217 -0.962895393371582031
0.16092410683631897 -0.148522451519966125 -0.00204513687640428543
-0.170109823346138 0.0759256482124328613 0.782774627208709717
-0.0867821425199508667 -0.0318641103804111481 -0.177488803863525391
0.0512492656707763672 -0.068133525550365448 -0.650127172470092773
-0.258002668619155884 0.0869414806365966797 0.867588520050048828
-0.0309300627559423447 -0.0699027031660079956 -0.320125579833984375
0.309532850980758667 -0.0280842054635286331 0.107151485979557037
-0.11737833172082901 -0.0149120893329381943 -0.127386957406997681
0.00690969498828053474 0.103000476956367493 -0.383507341146469116
-0.0546606443822383881 -0.0761219635605812073 0.271663755178451538
-0.0435954518616199493 -0.0651118531823158264 0.403030097484588623
0.534547865390777588 -0.00108034955337643623 0.12671796977519989
0.0454958230257034302 0.0550971142947673798 0.581340909004211426
-0.347047537565231323 -0.0827925503253936768 -0.12577056884765625
-0.047956373542547226 0.0945617035031318665 0.276811450719833374
-0.112898096442222595 -0.0559319406747817993 -0.296095967292785645
0.059464573860168457 0.0767132341861724854 -0.533264100551605225
0.0827372819185256958 0.0234426390379667282 -0.17112983763217926
0.028190266340970993 -0.0786912813782691956 -0.810997545719146729
0.00465952418744564056 0.0986781567335128784 0.721200287342071533
0.333031713962554932 -0.0817310512065887451 -0.127320617437362671
0.035602811723947525 -0.0468590855598449707 -0.0154174230992794037
0.374075621366500854 -0.0345044098794460297 -0.275862038135528564
0.539857447147369385 2.07606863114051521e-05 0.22310890257358551
0.0570170804858207703 -0.0231414735317230225 -0.114018626511096954
0.357264429330825806 -0.0347020328044891357 -0.102251291275024414
0.0511923693120479584 0.0841176360845565796 0.0468340478837490082
0.0867499932646751404 0.05772414430975914 0.88827282190322876
0.653741121292114258 0.0143178123980760574 0.202241674065589905
0.0810881257057189941 0.00737912440672516823 -0.712357997894287109
-0.114157624542713165 -0.0226290132850408554 -0.0815774649381637573
0.00982290506362915039 0.0854844227433204651 0.599975526332855225
0.306726276874542236 0.000361727987183257937 -0.0328388810157775879
-0.0355408787727355957 -0.0631172135472297668 -0.402555108070373535
0.0298463590443134308 0.0230178367346525192 0.701526224613189697
-0.00689642643555998802 -0.0541148185729980469 -0.778476893901824951
0.0632296055555343628 0.0725654140114784241 -0.0753581076860427856
-0.0444868765771389008 -0.0557656809687614441 -0.886460959911346436
-0.00633851764723658562 0.306237161159515381 0.903667688369750977
-0.262545257806777954 -0.00702277012169361115 -0.0422173216938972473
-0.0351971983909606934 -0.0935031101107597351 0.040749087929725647
-0.0955034792423248291 -0.00195840606465935707 -0.0691074952483177185
0.0829665660858154297 0.0200151614844799042 -0.446424633264541626
0.0634662285447120667 0.0220518261194229126 0.47871863842010498
0.0551697984337806702 -0.0926155075430870056 -0.228316441178321838
-0.147029131650924683 -0.0929994955658912659 -0.0413756594061851501
0.592738747596740723 -0.0139779448509216309 -0.129889935255050659
-0.175496771931648254 -0.146923169493675232 -0.0124934166669845581
-0.0858358368277549744 0.024650203064084053 -0.779659032821655273
-0.749631583690643311 0.0370197296142578125 0.247297361493110657
0.0284105110913515091 -0.00952535029500722885 0.629934906959533691
-0.0471153110265731812 -0.0650545507669448853 -0.849000692367553711
0.0532607994973659515 -0.0475764088332653046 0.386069118976593018
0.0532319508492946625 -0.0657320693135261536 -0.516155362129211426
-0.299152135848999023 -0.0297410003840923309 -0.173756450414657593
-0.0692451894283294678 0.0803596451878547668 -0.157893180847167969
0.0048728305846452713 0.245971590280532837 0.817375123500823975
-0.0239952951669692993 0.101272813975811005 0.497282922267913818
-0.377129584550857544 -0.0385091789066791534 -0.191149666905403137
0.0439149253070354462 -0.00708871427923440933 -0.911813437938690186
0.0226187705993652344 -0.0684863552451133728 -0.34311985969543457
0.0533128678798675537 -0.0656335577368736267 -0.185976848006248474
-0.806772947311401367 0.0418934933841228485 0.285658359527587891
0.601975679397583008 -0.0252341274172067642 0.137705951929092407
0.235789388418197632 -0.0379754044115543365 -0.190316349267959595
-0.0236792564392089844 0.0672297477722167969 0.832738816738128662
0.368325769901275635 0.0092070065438747406 -0.0526250004768371582
0.0543276295065879822 -0.0928436815738677979 -0.255444109439849854
0.0290383659303188324 0.0495315529406070709 0.854815304279327393
-0.0579366348683834076 0.0274928770959377289 -0.902960538864135742
0.0520636886358261108 0.0834220200777053833 -0.118927076458930969
-0.0788921192288398743 -0.00731820147484540939 0.450158536434173584
-0.0158928018063306808 0.103564098477363586 -0.69551461935043335
-0.629068255424499512 0.00409911200404167175 -0.0807258561253547668
0.736900389194488525 0.025157533586025238 0.242312505841255188
-0.0944335311651229858 -0.00809452962130308151 0.196105852723121643
-0.0922640785574913025 0.0448085255920886993 0.151123553514480591
-0.39247816801071167 -0.0826538354158401489 -0.101378560066223145
-0.625314772129058838 -0.00776190496981143951 0.162684515118598938
-0.114279255270957947 -0.0062443343922495842 -0.338697910308837891
-0.00660103838890790939 -0.0399977974593639374 -0.296800613403320312
-0.0551412366330623627 0.0894837677478790283 0.337005674839019775
0.594478726387023926 -0.0651621147990226746 0.0125427935272455215
-0.540428519248962402 0.000132139670313335955 0.210880488157272339
0.332000404596328735 -0.00874771550297737122 0.0507104508578777313
-0.00613430654630064964 0.337686270475387573 0.782280087471008301
0.376491189002990723 -0.0918133482336997986 -0.302583605051040649
-0.0868581309914588928 -0.0165759176015853882 -0.745977342128753662
-0.07440987229347229 -0.0652163922786712646 -0.131101235747337341
-0.00691083818674087524 0.233360171318054199 0.709987103939056396
-0.0136675098910927773 0.122067868709564209 0.838756978511810303
-0.0389325693249702454 0.0983606129884719849 0.044488079845905304
-0.0692726299166679382 -0.0625515729188919067 -0.63624417781829834
-0.0725248977541923523 -0.055998384952545166 -0.71317213773727417
-0.19265274703502655 -0.0420040041208267212 -0.272834330797195435
0.182591482996940613 -0.0480482466518878937 -0.00982084684073925018
0.035740729421377182 -0.0199914313852787018 -0.153538599610328674
-0.0112918177619576454 0.0593555048108100891 0.658158302307128906
-0.245949164032936096 -0.0404476262629032135 -0.076663479208946228
0.0193728357553482056 -0.0935031101107597351 0.0950496196746826172
0.00961955077946186066 0.0648648738861083984 0.50405806303024292
0.0735800862312316895 -0.0244262348860502243 0.00730563141405582428
0.0475752092897891998 -0.0695941001176834106 0.295261144638061523
0.283616423606872559 -0.0316992588341236115 -0.147909402847290039
-0.63290715217590332 -0.0756334289908409119 -0.0391764529049396515
-0.632033646106719971 0.0292889606207609177 0.13826887309551239
-0.206931814551353455 -0.00331745203584432602 -0.279333025217056274
0.248038917779922485 0.0809210464358329773 0.89030534029006958
-0.423423618078231812 -0.00249297870323061943 0.102662205696105957
0.0991778448224067688 0.0702757462859153748 0.805683434009552002
-0.0657577961683273315 -0.0669936090707778931 -0.476568996906280518
0.05206308513879776 -0.0580758601427078247 -0.774855136871337891
0.518119692802429199 -0.00301890471018850803 0.0969176068902015686
-0.00660103838890790939 -0.0256888847798109055 -0.391204237937927246
0.578135967254638672 -0.0489297248423099518 -0.0480924956500530243
0.161397561430931091 -0.141447767615318298 -0.089535541832447052
0.067091330885887146 0.0676490142941474915 0.108115486800670624
0.114323407411575317 -0.050827566534280777 0.0449661575257778168
0.0105737987905740738 -0.052508186548948288 0.498839020729064941
-0.0901006609201431274 0.0506808124482631683 -0.535008132457733154
-0.0422611311078071594 -0.0694352760910987854 -0.238808855414390564
-0.728856801986694336 0.0375597812235355377 0.203248903155326843
-0.381733417510986328 0.00563085870817303658 -0.00088350195437669754
-0.716411232948303223 0.0228637363761663437 0.141444355249404907
-0.107261858880519867 -0.058691956102848053 -0.198817431926727295
0.662210047245025635 0.0178751647472381592 0.273969709873199463
-0.00660103838890790939 -0.0485844314098358154 -0.167999610304832458
0.187776371836662292 -0.0401474758982658386 -0.270417779684066772
-0.00633982755243778229 0.239967465400695801 0.89105224609375
-0.00666966987773776054 0.180994600057601929 0.880771875381469727
0.0617827959358692169 0.0742505639791488647 -0.430970519781112671
0.616200387477874756 0.0142174940556287766 -0.0299937240779399872
-0.531342387199401855 -0.00232490478083491325 0.0489867106080055237
0.25338059663772583 -0.0377935618162155151 -0.0480847544968128204
0.25529053807258606 -0.00152907846495509148 -0.077389448881149292
0.0194024890661239624 -0.0902904495596885681 -0.705091238021850586
0.338556408882141113 -0.0259404890239238739 -0.0348994694650173187
0.075843125581741333 -0.0254828128963708878 0.180469751358032227
-0.354544401168823242 -0.0261861644685268402 0.0236195437610149384
0.0735800862312316895 -0.0329629145562648773 -0.25631365180015564
-0.642876923084259033 -0.0175613313913345337 0.0222087260335683823
-0.0463884398341178894 0.0952976122498512268 -0.36130717396736145
0.0735800862312316895 -0.0308741815388202667 -0.192309677600860596
-0.440399706363677979 0.0146663198247551918 -0.0395740121603012085
0.00837821140885353088 -0.0728138014674186707 -0.256384998559951782
-0.0166099108755588531 0.243211284279823303 0.76938319206237793
0.0502986349165439606 0.084780573844909668 0.21035274863243103
-0.0772892087697982788 0.0719754546880722046 0.0503575243055820465
0.0829796344041824341 0.0197388287633657455 0.0219316892325878143
-0.0148747414350509644 0.0732002109289169312 0.804641067981719971
0.185685515403747559 0.0791507735848426819 0.877149105072021484
0.629235029220581055 -0.0643852800130844116 0.0786626264452934265
0.349012643098831177 -0.0992559492588043213 -0.281603783369064331
-0.0442904606461524963 0.0937630608677864075 -0.726076126098632812
-0.0758684352040290833 -0.0456738397479057312 0.329558044672012329
0.14927971363067627 -0.0780167877674102783 -0.0387597903609275818
-0.0886965692043304443 -0.0275671277195215225 0.000534884689841419458
-0.403148502111434937 -0.0555041208863258362 -0.292254060506820679
0.818378031253814697 0.0355188511312007904 0.355492532253265381
0.0544283539056777954 -0.0248742606490850449 0.482127338647842407
0.470845520496368408 0.00330057088285684586 0.140338614583015442
-0.0856043398380279541 -0.034994952380657196 -0.360727161169052124
0.0822022035717964172 -0.00012700566730927676 -0.106539830565452576
-0.0677060037851333618 0.0816892385482788086 -0.453705400228500366
-0.00311526027508080006 0.386982947587966919 0.798566520214080811
-0.596818983554840088 -0.06049390509724617 -0.0842318311333656311
0.014221719466149807 0.101660013198852539 -0.00249096727930009365
0.364957332611083984 0.00919434055685997009 -0.110340550541877747
-0.0902360603213310242 0.0217522718012332916 0.364571630954742432
-0.62006455659866333 0.0294811185449361801 0.0860269218683242798
-0.0911744236946105957 0.0479293428361415863 -0.605273544788360596
-0.0218813326209783554 0.102804854512214661 0.174533963203430176
0.0470684804022312164 -0.072896227240562439 -0.422216087579727173
0.272189199924468994 -0.0356716588139533997 0.0373714715242385864
0.120655246078968048 -0.0281601995229721069 -0.0398210957646369934
-0.0152276819571852684 -0.076032489538192749 -0.0387056097388267517
0.00164422555826604366 0.102801941335201263 0.656755030155181885
0.181454584002494812 -0.0473585762083530426 -0.116119518876075745
0.0460147149860858917 -0.0463253147900104523 0.43028143048286438
-0.650367677211761475 -0.027625327929854393 0.100021511316299438
-0.634990930557250977 -0.013095267117023468 -0.0356605164706707001
-0.0540562085807323456 0.0913019925355911255 -0.101351827383041382
-0.0318526476621627808 -0.0907719433307647705 -0.00790502969175577164
0.339763641357421875 -0.0343477912247180939 -0.306469768285751343
